1.472260 -2.040687 0.052207
1.457682 -2.022873 0.038456
1.456275 -2.026265 0.036162
1.460064 -2.024410 0.035182
1.444828 -2.005868 0.021646
1.443386 -2.009214 0.019306
1.447151 -2.007328 0.018296
1.431257 -1.988055 0.004969
1.429781 -1.991357 0.002588
1.433523 -1.989441 0.001550
1.416968 -1.969435 -0.011574
1.415459 -1.972693 -0.013994
1.419180 -1.970750 -0.015057
1.401962 -1.950007 -0.027984
1.400421 -1.953224 -0.030439
1.404120 -1.951253 -0.031525
1.386238 -1.929770 -0.044261
1.384666 -1.932948 -0.046747
1.388345 -1.930951 -0.047854
1.369796 -1.908726 -0.060404
1.368195 -1.911866 -0.062919
1.371855 -1.909844 -0.064045
1.352637 -1.886875 -0.076412
1.351008 -1.889979 -0.078954
1.354648 -1.887933 -0.080098
1.334761 -1.864216 -0.092286
1.333104 -1.867285 -0.094852
1.336727 -1.865216 -0.096012
1.316167 -1.840748 -0.108026
1.314484 -1.843784 -0.110614
1.318089 -1.841694 -0.111789
1.296855 -1.816474 -0.123630
1.295147 -1.819478 -0.126239
1.298736 -1.817367 -0.127427
1.276826 -1.791392 -0.139100
1.275094 -1.794366 -0.141728
1.278667 -1.792234 -0.142928
1.256080 -1.765502 -0.154435
1.254325 -1.768447 -0.157080
1.257882 -1.766296 -0.158292
1.234617 -1.738805 -0.169635
1.232839 -1.741723 -0.172295
1.236381 -1.739553 -0.173518
1.212436 -1.711301 -0.184699
1.210636 -1.714192 -0.187374
1.214165 -1.712005 -0.188606
1.189538 -1.682989 -0.199628
1.187718 -1.685855 -0.202317
1.191232 -1.683651 -0.203558
1.165914 -1.653860 -0.214427
1.164084 -1.656713 -0.217122
1.167592 -1.654501 -0.218367
0.027428 -1.661451 0.978420
0.028451 -1.665253 0.976616
0.000024 -1.663933 0.957705
-0.001012 -1.660131 0.959500
0.026057 -1.665142 0.980223
-0.002395 -1.663821 0.961295
-0.027380 -1.662668 0.938904
-0.028443 -1.658865 0.940680
-0.029852 -1.662553 0.942457
-0.053775 -1.661457 0.920205
-0.054866 -1.657653 0.921961
-0.056301 -1.661340 0.923720
-0.079160 -1.660300 0.901608
-0.080280 -1.656494 0.903343
-0.081743 -1.660181 0.905081
-0.103535 -1.659197 0.883113
-0.104686 -1.655390 0.884825
-0.106178 -1.659075 0.886541
-0.126901 -1.658149 0.864721
-0.128084 -1.654340 0.866407
-0.129606 -1.658023 0.868100
-0.149256 -1.657154 0.846432
-0.150473 -1.653344 0.848091
-0.152027 -1.657026 0.849757
-0.170602 -1.656213 0.828245
-0.171853 -1.652402 0.829874
-0.173440 -1.656082 0.831513
-0.190938 -1.655327 0.810162
-0.192225 -1.651514 0.811759
-0.193847 -1.655193 0.813366
-0.210264 -1.654494 0.792182
-0.211589 -1.650679 0.793744
-0.213247 -1.654357 0.795318
-0.228580 -1.653716 0.774305
-0.229944 -1.649899 0.775829
-0.231639 -1.653575 0.777367
-0.245886 -1.652991 0.756533
-0.247291 -1.649173 0.758015
-0.249024 -1.652847 0.759513
-0.262182 -1.652321 0.738866
-0.263629 -1.648501 0.740302
-0.265403 -1.652173 0.741756
-0.277469 -1.651704 0.721302
-0.278959 -1.647883 0.722689
-0.280774 -1.651554 0.724096
-0.291746 -1.651142 0.703844
-0.293281 -1.647318 0.705176
-0.295138 -1.650988 0.706532
-0.305013 -1.650633 0.686492
-0.306594 -1.646808 0.687764
-0.308494 -1.650476 0.689063
-0.317271 -1.650179 0.669246
-0.318898 -1.646352 0.670453
-0.320842 -1.650018 0.671690
-0.328521 -1.649778 0.652106
-0.330195 -1.645950 0.653242
-0.332183 -1.649614 0.654411
-0.338762 -1.649432 0.635073
-0.340482 -1.645601 0.636131
-0.342515 -1.649265 0.637227
-0.347995 -1.649139 0.618148
-0.349761 -1.645308 0.619121
-0.351838 -1.648969 0.620137
-0.356221 -1.648900 0.601330
-0.358032 -1.645067 0.602212
-0.360151 -1.648728 0.603141
-0.363441 -1.648716 0.584620
-0.365294 -1.644881 0.585403
-0.367453 -1.648541 0.586238
-0.369655 -1.648584 0.568017
-0.371548 -1.644749 0.568694
-0.373745 -1.648408 0.569429
-0.374864 -1.648507 0.551523
-0.376793 -1.644671 0.552086
-0.379024 -1.648329 0.552713
-0.379070 -1.648483 0.535135
-0.381030 -1.644647 0.535578
-0.383289 -1.648305 0.536091
-0.382273 -1.648512 0.518855
-0.384258 -1.644677 0.519171
-0.386541 -1.648335 0.519564
-0.384474 -1.648595 0.502680
-0.386477 -1.644760 0.502865
-0.388777 -1.648419 0.503132
-0.385675 -1.648732 0.486610
-0.387688 -1.644899 0.486659
-0.389998 -1.648559 0.486797
-0.385876 -1.648922 0.470644
-0.387890 -1.645090 0.470553
-0.390201 -1.648752 0.470559
-0.385076 -1.649166 0.454779
-0.387084 -1.645336 0.454548
-0.389388 -1.649000 0.454421
-0.383277 -1.649463 0.439014
-0.385268 -1.645636 0.438644
-0.387558 -1.649302 0.438384
-0.380478 -1.649814 0.423348
-0.382445 -1.645990 0.422840
-0.384711 -1.649659 0.422450
-0.376678 -1.650219 0.407779
-0.378613 -1.646398 0.407137
-0.380848 -1.650070 0.406620
-0.371877 -1.650677 0.392305
-0.373772 -1.646860 0.391535
-0.375969 -1.650536 0.390895
-0.366074 -1.651189 0.376926
-0.367922 -1.647376 0.376033
-0.370076 -1.651056 0.375277
-0.359268 -1.651755 0.361641
-0.361064 -1.647946 0.360632
-0.363169 -1.651630 0.359766
-0.351457 -1.652374 0.346449
-0.353198 -1.648570 0.345332
-0.355250 -1.652258 0.344363
-0.342640 -1.653048 0.331350
-0.344323 -1.649248 0.330132
-0.346319 -1.652941 0.329069
-0.332817 -1.653775 0.316344
-0.334439 -1.649980 0.315033
-0.336378 -1.653677 0.313882
-0.321987 -1.654557 0.301430
-0.323547 -1.650766 0.300035
-0.325428 -1.654467 0.298803
-0.310148 -1.655393 0.286610
-0.311647 -1.651606 0.285138
-0.313469 -1.655311 0.283833
-0.297300 -1.656282 0.271884
-0.298738 -1.652500 0.270341
-0.300502 -1.656209 0.268969
-0.283443 -1.657226 0.257252
-0.284820 -1.653448 0.255645
-0.286527 -1.657161 0.254213
-0.268576 -1.658224 0.242714
-0.269894 -1.654450 0.241050
-0.271545 -1.658167 0.239563
-0.252699 -1.659277 0.228272
-0.253960 -1.655506 0.226556
-0.255556 -1.659226 0.225019
-0.235812 -1.660383 0.213925
-0.237017 -1.656616 0.212162
-0.238561 -1.660340 0.210580
-0.217914 -1.661544 0.199675
-0.219066 -1.657780 0.197869
-0.220559 -1.661507 0.196246
-0.199006 -1.662758 0.185521
-0.200107 -1.658999 0.183676
-0.201551 -1.662728 0.182017
-0.179087 -1.664027 0.171464
-0.180139 -1.660270 0.169584
-0.181536 -1.664003 0.167893
-0.158158 -1.665350 0.157504
-0.159162 -1.661597 0.155593
-0.160515 -1.665332 0.153872
-0.136218 -1.666727 0.143642
-0.137177 -1.662976 0.141702
-0.138487 -1.666715 0.139954
-0.113267 -1.668159 0.129877
-0.114184 -1.664410 0.127912
-0.115453 -1.668151 0.126140
-0.089307 -1.669644 0.116212
-0.090182 -1.665899 0.114223
-0.091413 -1.669642 0.112428
-0.064335 -1.671184 0.102644
-0.065172 -1.667440 0.100635
-0.066366 -1.671186 0.098819
-0.038354 -1.672778 0.089175
-0.039153 -1.669037 0.087147
-0.040312 -1.672784 0.085313
-0.011362 -1.674425 0.075806
-0.012126 -1.670687 0.073759
-0.013251 -1.674436 0.071909
0.016639 -1.676127 0.062535
0.015909 -1.672391 0.060472
0.014816 -1.676142 0.058607
0.045651 -1.677884 0.049363
0.044953 -1.674149 0.047286
0.043891 -1.677902 0.045407
0.075688 -1.679694 0.036285
0.075005 -1.675961 0.034201
0.073958 -1.679715 0.032315
0.285082 2.074919 -1.004543
0.288624 2.072430 -1.004605
0.287762 2.072029 -1.037906
0.284219 2.074518 -1.037875
0.284699 2.070606 -1.004481
0.283835 2.070206 -1.037815
0.287470 2.071609 -1.070102
0.283926 2.074098 -1.070135
0.283543 2.069785 -1.070077
0.287748 2.071171 -1.101211
0.284205 2.073658 -1.101314
0.283821 2.069345 -1.101258
0.288596 2.070713 -1.131235
0.285055 2.073200 -1.131411
0.284671 2.068887 -1.131358
0.290013 2.070237 -1.160172
0.286476 2.072722 -1.160427
0.286093 2.068409 -1.160377
0.291999 2.069741 -1.188023
0.288469 2.072225 -1.188363
0.288085 2.067912 -1.188315
0.294555 2.069227 -1.214786
0.291033 2.071709 -1.215218
0.290650 2.067396 -1.215173
0.297679 2.068694 -1.240461
0.294169 2.071174 -1.240992
0.293786 2.066861 -1.240950
0.301371 2.068142 -1.265049
0.297877 2.070619 -1.265686
0.297495 2.066306 -1.265648
0.305630 2.067571 -1.288548
0.302157 2.070045 -1.289299
0.301776 2.065732 -1.289265
0.310457 2.066981 -1.310958
0.307010 2.069453 -1.311833
0.306630 2.065139 -1.311803
0.315849 2.066372 -1.332279
0.312436 2.068840 -1.333286
0.312057 2.064527 -1.333262
0.321806 2.065745 -1.352511
0.318435 2.068209 -1.353660
0.318058 2.063895 -1.353641
0.328327 2.065100 -1.371652
0.325009 2.067558 -1.372955
0.324633 2.063244 -1.372940
0.335411 2.064435 -1.389705
0.332157 2.066887 -1.391170
0.331783 2.062573 -1.391161
0.343056 2.063752 -1.406667
0.339880 2.066197 -1.408305
0.339509 2.061883 -1.408303
0.351261 2.063051 -1.422540
0.348179 2.065488 -1.424361
0.347812 2.061173 -1.424364
0.360024 2.062331 -1.437325
0.357055 2.064759 -1.439336
0.356692 2.060444 -1.439346
0.369343 2.061594 -1.451023
0.366509 2.064010 -1.453231
0.366150 2.059695 -1.453248
0.379218 2.060838 -1.463636
0.376540 2.063243 -1.466043
0.376187 2.058927 -1.466067
0.389648 2.060064 -1.475167
0.387150 2.062456 -1.477773
0.386803 2.058140 -1.477804
0.400632 2.059272 -1.485618
0.398338 2.061649 -1.488418
0.397998 2.057332 -1.488456
0.412171 2.058461 -1.494993
0.410105 2.060822 -1.497977
0.409772 2.056505 -1.498021
0.424268 2.057632 -1.503296
0.422448 2.059976 -1.506449
0.422124 2.055658 -1.506499
0.436924 2.056784 -1.510528
0.435368 2.059111 -1.513831
0.435053 2.054792 -1.513886
0.450144 2.055918 -1.516693
0.448862 2.058226 -1.520124
0.448556 2.053907 -1.520184
0.463930 2.055032 -1.521791
0.462928 2.057323 -1.525326
0.462632 2.053003 -1.525389
0.478288 2.054127 -1.525823
0.477565 2.056400 -1.529437
0.477279 2.052080 -1.529503
0.493220 2.053203 -1.528789
0.492770 2.055458 -1.532458
0.492494 2.051138 -1.532525
0.508730 2.052258 -1.530687
0.508544 2.054498 -1.534388
0.508277 2.050177 -1.534457
0.524820 2.051294 -1.531515
0.524883 2.053519 -1.535230
0.524625 2.049197 -1.535299
0.541491 2.050310 -1.531272
0.541789 2.052521 -1.534983
0.541539 2.048199 -1.535052
0.558744 2.049306 -1.529955
0.559260 2.051505 -1.533649
0.559017 2.047182 -1.533718
0.576580 2.048282 -1.527562
0.577296 2.050469 -1.531230
0.577060 2.046146 -1.531297
0.594997 2.047239 -1.524091
0.595897 2.049416 -1.527725
0.595668 2.045092 -1.527791
0.613997 2.046175 -1.519541
0.615064 2.048342 -1.523135
0.614840 2.044019 -1.523200
0.633577 2.045092 -1.513911
0.634797 2.047251 -1.517461
0.634578 2.042927 -1.517525
0.653737 2.043989 -1.507200
0.655096 2.046140 -1.510704
0.654882 2.041816 -1.510766
0.674477 2.042867 -1.499406
0.675961 2.045011 -1.502863
0.675752 2.040686 -1.502924
0.695796 2.041725 -1.490531
0.697394 2.043863 -1.493940
0.697189 2.039538 -1.493999
0.717692 2.040563 -1.480572
0.719394 2.042695 -1.483934
0.719193 2.038370 -1.483991
0.740165 2.039382 -1.469529
0.741963 2.041509 -1.472845
0.741764 2.037184 -1.472900
0.763215 2.038181 -1.457403
0.765099 2.040304 -1.460673
0.764904 2.035979 -1.460727
0.786840 2.036961 -1.444194
0.788803 2.039080 -1.447420
0.788611 2.034755 -1.447472
0.811041 2.035722 -1.429901
0.813076 2.037837 -1.433084
0.812886 2.033511 -1.433135
0.835816 2.034463 -1.414523
0.837918 2.036575 -1.417666
0.837730 2.032249 -1.417715
0.861166 2.033185 -1.398062
0.863328 2.035294 -1.401165
0.863143 2.030968 -1.401213
0.887090 2.031888 -1.380517
0.889309 2.033994 -1.383582
0.889125 2.029668 -1.383628
0.913587 2.030571 -1.361888
0.915858 2.032675 -1.364916
0.915676 2.028349 -1.364962
0.940658 2.029236 -1.342176
0.942977 2.031337 -1.345169
0.942797 2.027011 -1.345213
0.968302 2.027880 -1.321379
0.970665 2.029979 -1.324338
0.970487 2.025653 -1.324382
0.996519 2.026506 -1.299498
0.998924 2.028603 -1.302426
0.998746 2.024277 -1.302468
1.025309 2.025113 -1.276534
1.027751 2.027208 -1.279431
1.027576 2.022882 -1.279472
1.054671 2.023700 -1.252486
1.057149 2.025794 -1.255354
1.056975 2.021467 -1.255394
1.084605 2.022268 -1.227355
1.087117 2.024360 -1.230194
1.086944 2.020033 -1.230233
1.115112 2.020817 -1.201139
1.117655 2.022907 -1.203952
1.117483 2.018581 -1.203990
1.146191 2.019347 -1.173840
1.148763 2.021436 -1.176628
1.148592 2.017109 -1.176665
1.177842 2.017858 -1.145458
1.180441 2.019945 -1.148221
1.180271 2.015619 -1.148257
1.210073 2.016348 -1.115984
1.212686 2.018435 -1.118735
1.212516 2.014109 -1.118771
1.604309 1.834390 -0.993200
1.600542 1.836211 -0.994314
1.610374 1.843855 -1.015066
1.614151 1.842041 -1.013973
1.603473 1.838490 -0.992086
1.613319 1.846145 -1.012868
1.619509 1.851066 -1.035170
1.623306 1.849267 -1.034120
1.622482 1.853377 -1.033032
1.627956 1.857849 -1.054639
1.631773 1.856067 -1.053636
1.630958 1.860184 -1.052569
1.635714 1.864205 -1.073474
1.639553 1.862441 -1.072523
1.638747 1.866565 -1.071478
1.642784 1.870134 -1.091673
1.646645 1.868388 -1.090780
1.645848 1.872520 -1.089759
1.649165 1.875635 -1.109237
1.653049 1.873909 -1.108407
1.652262 1.878050 -1.107414
1.654857 1.880708 -1.126164
1.658765 1.879004 -1.125405
1.657988 1.883154 -1.124442
1.659861 1.885354 -1.142453
1.663793 1.883673 -1.141774
1.663027 1.887832 -1.140843
1.664177 1.889573 -1.158104
1.668134 1.887916 -1.157513
1.667377 1.892085 -1.156621
1.667805 1.893364 -1.173115
1.671786 1.891732 -1.172624
1.671040 1.895912 -1.171774
1.670747 1.896728 -1.187485
1.674750 1.895122 -1.187107
1.674014 1.899313 -1.186304
1.673002 1.899665 -1.201213
1.677026 1.898086 -1.200962
1.676298 1.902288 -1.200213
1.674572 1.902175 -1.214296
1.678613 1.900623 -1.214188
1.677893 1.904837 -1.213500
1.675458 1.904259 -1.226733
1.679511 1.902735 -1.226788
1.678796 1.906960 -1.226169
1.675664 1.905917 -1.238522
1.679719 1.904419 -1.238761
1.679005 1.908655 -1.238220
1.675191 1.907152 -1.249662
1.679237 1.905676 -1.250108
1.678520 1.909922 -1.249654
1.674044 1.907964 -1.260152
1.678065 1.906506 -1.260828
1.677336 1.910759 -1.260471
1.672226 1.908356 -1.269992
1.676199 1.906908 -1.270922
1.675451 1.911165 -1.270672
1.669742 1.908330 -1.279186
1.673641 1.906881 -1.280388
1.672861 1.911138 -1.280254
1.666596 1.907890 -1.287738
1.670389 1.906425 -1.289227
1.669564 1.910676 -1.289214
1.662789 1.907036 -1.295656
1.666442 1.905540 -1.297436
1.665558 1.909777 -1.297546
1.658323 1.905771 -1.302948
1.661801 1.904225 -1.305012
1.660842 1.908441 -1.305243
1.653191 1.904092 -1.309624
1.656465 1.902479 -1.311954
1.655421 1.906668 -1.312297
1.647390 1.901999 -1.315693
1.650439 1.900305 -1.318260
1.649299 1.904459 -1.318703
1.640909 1.899488 -1.321160
1.643721 1.897702 -1.323928
1.642480 1.901817 -1.324455
1.633743 1.896555 -1.326028
1.636316 1.894672 -1.328957
1.634974 1.898746 -1.329554
1.625882 1.893197 -1.330293
1.628223 1.891215 -1.333349
1.626784 1.895247 -1.333999
1.617322 1.889410 -1.333954
1.619446 1.887332 -1.337104
1.617915 1.891324 -1.337793
1.608061 1.885193 -1.337006
1.609984 1.883024 -1.340223
1.608367 1.886976 -1.340940
1.598097 1.880545 -1.339445
1.599837 1.878290 -1.342707
1.598143 1.882206 -1.343443
1.587430 1.875464 -1.341266
1.589005 1.873131 -1.344556
1.587242 1.877014 -1.345305
1.576061 1.869951 -1.342467
1.577490 1.867547 -1.345773
1.575665 1.871400 -1.346528
1.563992 1.864007 -1.343044
1.565289 1.861538 -1.346357
1.563409 1.865364 -1.347115
1.551223 1.857631 -1.342996
1.552403 1.855104 -1.346308
1.550473 1.858905 -1.347066
1.537756 1.850824 -1.342321
1.538832 1.848244 -1.345628
1.536858 1.852023 -1.346384
1.523591 1.843586 -1.341018
1.524575 1.840959 -1.344317
1.522561 1.844718 -1.345069
1.508732 1.835919 -1.339086
1.509631 1.833248 -1.342374
1.507582 1.836989 -1.343122
1.493177 1.827821 -1.336525
1.494002 1.825112 -1.339800
1.491921 1.828836 -1.340543
1.476928 1.819295 -1.333333
1.477686 1.816550 -1.336595
1.475576 1.820259 -1.337332
1.459986 1.810339 -1.329511
1.460683 1.807562 -1.332759
1.458548 1.811257 -1.333490
1.442352 1.800954 -1.325058
1.442993 1.798148 -1.328292
1.440834 1.801831 -1.329018
1.424025 1.791141 -1.319974
1.424616 1.788308 -1.323195
1.422436 1.791980 -1.323914
1.405007 1.780900 -1.314260
1.405552 1.778042 -1.317466
1.403353 1.781703 -1.318180
1.385298 1.770231 -1.307914
1.385801 1.767350 -1.311107
1.383584 1.771002 -1.311815
1.364898 1.759134 -1.300937
1.365363 1.756232 -1.304117
1.363130 1.759875 -1.304820
1.343808 1.747609 -1.293329
1.344237 1.744688 -1.296497
1.341989 1.748323 -1.297194
1.322027 1.735657 -1.285090
1.322424 1.732718 -1.288245
1.320162 1.736345 -1.288937
1.299557 1.723277 -1.276220
1.299923 1.720321 -1.279363
1.297649 1.723941 -1.280050
1.276396 1.710469 -1.266718
1.276735 1.707498 -1.269850
1.274448 1.711112 -1.270532
1.252547 1.697235 -1.256586
1.252859 1.694249 -1.259707
1.250562 1.697857 -1.260384
1.228008 1.683573 -1.245822
1.228296 1.680574 -1.248932
1.225988 1.684176 -1.249605
1.202779 1.669484 -1.234427
1.203044 1.666472 -1.237527
1.200727 1.670069 -1.238195
1.176862 1.654968 -1.222401
1.177106 1.651945 -1.225491
1.174779 1.655536 -1.226155
1.150255 1.640026 -1.209744
1.150479 1.636991 -1.212824
1.148145 1.640577 -1.213484
1.122960 1.624655 -1.196455
1.123165 1.621610 -1.199527
1.120822 1.625192 -1.200183
1.094975 1.608859 -1.182536
1.095163 1.605803 -1.185599
1.092813 1.609381 -1.186251
1.066302 1.592635 -1.167985
1.066473 1.589570 -1.171039
1.064116 1.593144 -1.171689
1.036940 1.575984 -1.152804
1.037096 1.572911 -1.155850
1.034732 1.576481 -1.156495
1.006884 1.558903 -1.136988
1.007032 1.555826 -1.140030
1.004665 1.559394 -1.140674
1.991829 1.438486 -0.146194
1.992284 1.442221 -0.148338
2.025434 1.440884 -0.143629
2.024984 1.437149 -0.141485
1.991676 1.442245 -0.144051
2.024850 1.440907 -0.139338
2.057398 1.439481 -0.139456
2.056960 1.435745 -0.137310
2.056865 1.439502 -0.135159
2.088188 1.438011 -0.135818
2.087762 1.434275 -0.133671
2.087709 1.438030 -0.131515
2.117802 1.436476 -0.132715
2.117390 1.432739 -0.130567
2.117383 1.436491 -0.128406
2.146241 1.434874 -0.130147
2.145844 1.431136 -0.127997
2.145886 1.434886 -0.125831
2.173504 1.433206 -0.128113
2.173123 1.429467 -0.125962
2.173219 1.433213 -0.123793
2.199591 1.431472 -0.126614
2.199228 1.427732 -0.124462
2.199383 1.431474 -0.122289
2.224501 1.429672 -0.125649
2.224157 1.425930 -0.123496
2.224377 1.429668 -0.121321
2.248234 1.427806 -0.125219
2.247912 1.424063 -0.123066
2.248204 1.427795 -0.120889
2.270790 1.425874 -0.125323
2.270492 1.422129 -0.123169
2.270863 1.425854 -0.120993
2.292168 1.423876 -0.125960
2.291896 1.420129 -0.123807
2.292355 1.423846 -0.121634
2.312367 1.421814 -0.127130
2.312124 1.418063 -0.124980
2.312681 1.421770 -0.122812
2.331387 1.419685 -0.128834
2.331177 1.415931 -0.126686
2.331842 1.419626 -0.124528
2.349226 1.417492 -0.131069
2.349053 1.413734 -0.128926
2.349840 1.417413 -0.126783
2.365884 1.415235 -0.133835
2.365752 1.411471 -0.131698
2.366676 1.415132 -0.129579
2.381360 1.412913 -0.137131
2.381274 1.409142 -0.135004
2.382351 1.412780 -0.132917
2.395653 1.410528 -0.140954
2.395618 1.406748 -0.138841
2.396866 1.410358 -0.136801
2.408762 1.408080 -0.145303
2.408784 1.404290 -0.143209
2.410223 1.407863 -0.141233
2.420686 1.405571 -0.150175
2.420771 1.401767 -0.148107
2.422422 1.405296 -0.146217
2.431427 1.403001 -0.155565
2.431581 1.399181 -0.153533
2.433463 1.402654 -0.151759
2.440986 1.400371 -0.161471
2.441214 1.396531 -0.159485
2.443343 1.399936 -0.157865
2.449367 1.397683 -0.167889
2.449672 1.393817 -0.165961
2.452055 1.397141 -0.164538
2.456576 1.394935 -0.174817
2.456956 1.391041 -0.172962
2.459592 1.394267 -0.171782
2.462620 1.392129 -0.182254
2.463071 1.388201 -0.180486
2.465943 1.391318 -0.179598
2.467509 1.389260 -0.190204
2.468020 1.385298 -0.188536
2.471096 1.388295 -0.187980
2.471248 1.386329 -0.198676
2.471807 1.382328 -0.197115
2.475041 1.385202 -0.196916
2.473841 1.383329 -0.207677
2.474431 1.379292 -0.206226
2.477772 1.382043 -0.206395
2.475288 1.380260 -0.217218
2.475895 1.376188 -0.215874
2.479291 1.378824 -0.216402
2.475585 1.377118 -0.227306
2.476196 1.373015 -0.226063
2.479602 1.375546 -0.226926
2.474727 1.373903 -0.237946
2.475331 1.369773 -0.236794
2.478713 1.372212 -0.237961
2.472708 1.370615 -0.249139
2.473298 1.366461 -0.248068
2.476633 1.368821 -0.249503
2.469525 1.367254 -0.260886
2.470095 1.363080 -0.259885
2.473367 1.365373 -0.261554
2.465171 1.363821 -0.273186
2.465721 1.359630 -0.272244
2.468922 1.361867 -0.274115
2.459647 1.360317 -0.286035
2.460174 1.356112 -0.285145
2.463301 1.358301 -0.287189
2.452949 1.356742 -0.299432
2.453454 1.352525 -0.298587
2.456507 1.354675 -0.300779
2.445076 1.353098 -0.313375
2.445559 1.348871 -0.312568
2.448541 1.350987 -0.314888
2.436028 1.349384 -0.327863
2.436491 1.345149 -0.327089
2.439404 1.347237 -0.329518
2.425805 1.345602 -0.342893
2.426248 1.341359 -0.342147
2.429097 1.343424 -0.344673
2.414406 1.341751 -0.358464
2.414831 1.337503 -0.357744
2.417618 1.339546 -0.360352
2.401831 1.337833 -0.374576
2.402239 1.333579 -0.373878
2.404970 1.335605 -0.376559
2.388081 1.333846 -0.391228
2.388474 1.329588 -0.390549
2.391152 1.331598 -0.393294
2.373156 1.329793 -0.408418
2.373534 1.325530 -0.407756
2.376162 1.327527 -0.410558
2.357055 1.325672 -0.426147
2.357420 1.321406 -0.425500
2.360003 1.323391 -0.428352
2.339779 1.321484 -0.444414
2.340131 1.317215 -0.443780
2.342671 1.319190 -0.446677
2.321329 1.317228 -0.463217
2.321668 1.312957 -0.462596
2.324169 1.314923 -0.465533
2.301703 1.312907 -0.482558
2.302031 1.308632 -0.481947
2.304496 1.310590 -0.484921
2.280903 1.308517 -0.502436
2.281221 1.304241 -0.501835
2.283651 1.306191 -0.504842
2.258928 1.304062 -0.522850
2.259236 1.299783 -0.522258
2.261634 1.301727 -0.525295
2.235778 1.299539 -0.543800
2.236078 1.295259 -0.543216
2.238445 1.297197 -0.546281
2.211454 1.294950 -0.565287
2.211745 1.290668 -0.564710
2.214085 1.292601 -0.567799
2.185955 1.290294 -0.587310
2.186239 1.286010 -0.586740
2.188552 1.287938 -0.589852
2.159283 1.285571 -0.609868
2.159558 1.281286 -0.609305
2.161847 1.283210 -0.612438
2.131436 1.280782 -0.632962
2.131705 1.276496 -0.632405
2.133970 1.278416 -0.635557
2.102415 1.275926 -0.656592
2.102677 1.271639 -0.656040
2.104920 1.273555 -0.659210
2.072220 1.271003 -0.680758
2.072476 1.266716 -0.680210
2.074698 1.268628 -0.683397
2.040851 1.266014 -0.705458
2.041101 1.261726 -0.704916
2.043304 1.263635 -0.708118
2.008308 1.260959 -0.730695
2.008553 1.256669 -0.730157
2.010736 1.258576 -0.733373
1.974591 1.255837 -0.756467
1.974830 1.251546 -0.755933
1.976996 1.253450 -0.759163
1.939695 1.250648 -0.782777
1.939932 1.246357 -0.782245
1.942090 1.248259 -0.785482
1.996891 1.137707 -0.233310
2.000802 1.138669 -0.234899
2.018027 1.114268 -0.207292
2.014118 1.113303 -0.205699
1.999107 1.141070 -0.231720
2.016342 1.116656 -0.204098
2.034699 1.090433 -0.180933
2.030794 1.089463 -0.179334
2.033032 1.092795 -0.177709
2.050819 1.067161 -0.155816
2.046919 1.066183 -0.154210
2.049172 1.069493 -0.152561
2.066390 1.044450 -0.131942
2.062493 1.043466 -0.130328
2.064764 1.046750 -0.128653
2.081409 1.022301 -0.109309
2.077518 1.021309 -0.107688
2.079808 1.024566 -0.105985
2.095878 1.000714 -0.087920
2.091993 0.999715 -0.086290
2.094302 1.002942 -0.084557
2.109796 0.979691 -0.067773
2.105917 0.978682 -0.066134
2.108248 0.981875 -0.064369
2.123163 0.959230 -0.048868
2.119291 0.958210 -0.047220
2.121646 0.961367 -0.045422
2.135979 0.939332 -0.031207
2.132114 0.938301 -0.029549
2.134496 0.941417 -0.027713
2.148244 0.919998 -0.014788
2.144387 0.918954 -0.013119
2.146798 0.922024 -0.011245
2.159957 0.901227 0.000388
2.156109 0.900169 0.002068
2.158552 0.903187 0.003984
2.171119 0.883021 0.014321
2.167281 0.881947 0.016014
2.169760 0.884907 0.017974
2.181728 0.865380 0.027010
2.177901 0.864287 0.028716
2.180420 0.867181 0.030724
2.191785 0.848304 0.038457
2.187971 0.847191 0.040177
2.190534 0.850009 0.042236
2.201290 0.831796 0.048661
2.197489 0.830658 0.050396
2.200102 0.833389 0.052508
2.210241 0.815855 0.057621
2.206456 0.814689 0.059372
2.209126 0.817321 0.061540
2.218639 0.800483 0.065339
2.214872 0.799286 0.067106
2.217605 0.801801 0.069332
2.226483 0.785682 0.071815
2.222735 0.784447 0.073599
2.225540 0.786827 0.075884
2.233772 0.771454 0.077051
2.230047 0.770175 0.078850
2.232931 0.772398 0.081192
2.240506 0.757800 0.081047
2.236806 0.756470 0.082861
2.239782 0.758509 0.085257
2.246685 0.744724 0.083806
2.243013 0.743334 0.085632
2.246090 0.745158 0.088073
2.252308 0.732225 0.085331
2.248667 0.730766 0.087165
2.251856 0.732342 0.089636
2.257377 0.720306 0.085626
2.253769 0.718768 0.087463
2.257078 0.720060 0.089939
2.261893 0.708966 0.084698
2.258321 0.707340 0.086527
2.261757 0.708312 0.088976
2.265858 0.698201 0.082550
2.262322 0.696479 0.084359
2.265885 0.697104 0.086739
2.269277 0.688006 0.079187
2.265774 0.686183 0.080963
2.269459 0.686445 0.083222
2.272153 0.678372 0.074609
2.268680 0.676447 0.076337
2.272473 0.676347 0.078424
2.274489 0.669289 0.068815
2.271040 0.667269 0.070481
2.274922 0.666824 0.072348
2.276287 0.660749 0.061796
2.272857 0.658642 0.063392
2.276804 0.657888 0.065005
2.277547 0.652746 0.053545
2.274129 0.650566 0.055066
2.278118 0.649546 0.056406
2.278268 0.645280 0.044055
2.274856 0.643040 0.045499
2.278866 0.641802 0.046564
2.278448 0.638352 0.033318
2.275037 0.636063 0.034688
2.279053 0.634653 0.035487
2.278085 0.631963 0.021330
2.274672 0.629638 0.022631
2.278680 0.628095 0.023182
2.277175 0.626120 0.008090
2.273758 0.623766 0.009328
2.277751 0.622122 0.009652
2.275719 0.620823 -0.006403
2.272296 0.618449 -0.005222
2.276269 0.616730 -0.005102
2.273714 0.616078 -0.022150
2.270284 0.613688 -0.021019
2.274234 0.611914 -0.021082
2.271159 0.611885 -0.039148
2.267723 0.609484 -0.038063
2.271649 0.607670 -0.038287
2.268055 0.608247 -0.057398
2.264612 0.605838 -0.056352
2.268513 0.603995 -0.056720
2.264401 0.605166 -0.076898
2.260952 0.602752 -0.075887
2.264828 0.600888 -0.076383
2.260196 0.602643 -0.097646
2.256741 0.600224 -0.096667
2.260595 0.598347 -0.097276
2.255441 0.600678 -0.119642
2.251979 0.598257 -0.118691
2.255811 0.596370 -0.119402
2.250135 0.599272 -0.142885
2.246668 0.596849 -0.141960
2.250480 0.594957 -0.142761
2.244279 0.598425 -0.167375
2.240806 0.596002 -0.166472
2.244598 0.594107 -0.167354
2.237873 0.598138 -0.193110
2.234395 0.595715 -0.192228
2.238168 0.593819 -0.193183
2.230916 0.598412 -0.220091
2.227433 0.595989 -0.219227
2.231190 0.594094 -0.220248
2.223408 0.599246 -0.248316
2.219921 0.596823 -0.247468
2.223662 0.594930 -0.248550
2.215350 0.600640 -0.277785
2.211859 0.598218 -0.276953
2.215585 0.596327 -0.278090
2.206742 0.602595 -0.308499
2.203246 0.600174 -0.307681
2.206959 0.598286 -0.308867
2.197583 0.605111 -0.340456
2.194084 0.602691 -0.339651
2.197783 0.600807 -0.340883
2.187874 0.608188 -0.373657
2.184372 0.605768 -0.372863
2.188059 0.603888 -0.374138
2.177615 0.611825 -0.408101
2.174109 0.609407 -0.407318
2.177784 0.607531 -0.408631
2.166805 0.616023 -0.443788
2.163297 0.613606 -0.443015
2.166961 0.611734 -0.444364
2.155446 0.620782 -0.480718
2.151934 0.618366 -0.479954
2.155588 0.616499 -0.481336
2.143536 0.626102 -0.518890
2.140022 0.623687 -0.518135
2.143666 0.621824 -0.519548
2.131076 0.631983 -0.558306
2.127559 0.629569 -0.557558
2.131194 0.627710 -0.559001
2.118066 0.638424 -0.598963
2.114547 0.636012 -0.598223
2.118173 0.634158 -0.599692
2.104506 0.645427 -0.640864
2.100984 0.643016 -0.640131
2.104603 0.641166 -0.641625
2.090395 0.652991 -0.684006
2.086872 0.650581 -0.683280
2.090483 0.648735 -0.684798
2.075733 0.661117 -0.728397
2.072208 0.658707 -0.727674
2.075815 0.656863 -0.729203
1.826996 -0.023107 1.052027
1.827591 -0.019404 1.049863
1.874408 -0.025847 1.051726
1.873826 -0.029552 1.053890
1.827422 -0.019380 1.054190
1.874267 -0.025827 1.056054
1.919691 -0.032079 1.052943
1.919138 -0.035788 1.055107
1.919607 -0.032067 1.057272
1.963454 -0.038100 1.053513
1.962931 -0.041813 1.055678
1.963430 -0.038097 1.057843
2.005695 -0.043912 1.053437
2.005205 -0.047630 1.055602
2.005737 -0.043918 1.057767
2.046416 -0.049513 1.052716
2.045961 -0.053236 1.054880
2.046528 -0.049529 1.057044
2.085614 -0.054905 1.051348
2.085197 -0.058633 1.053511
2.085802 -0.054931 1.055674
2.123292 -0.060087 1.049335
2.122916 -0.063820 1.051496
2.123561 -0.060124 1.053657
2.159447 -0.065058 1.046677
2.159115 -0.068798 1.048835
2.159804 -0.065107 1.050992
2.194080 -0.069819 1.043374
2.193796 -0.073566 1.045526
2.194533 -0.069882 1.047679
2.227189 -0.074371 1.039425
2.226958 -0.078124 1.041572
2.227747 -0.074447 1.043719
2.258776 -0.078711 1.034833
2.258601 -0.082473 1.036971
2.259447 -0.078804 1.039109
2.288839 -0.082842 1.029596
2.288726 -0.086611 1.031724
2.289633 -0.082951 1.033851
2.317377 -0.086762 1.023716
2.317331 -0.090541 1.025830
2.318305 -0.086889 1.027943
2.344391 -0.090471 1.017193
2.344419 -0.094260 1.019289
2.345466 -0.090619 1.021385
2.369879 -0.093970 1.010029
2.369987 -0.097770 1.012102
2.371114 -0.094140 1.014176
2.393842 -0.097259 1.002224
2.394036 -0.101071 1.004269
2.395250 -0.097452 1.006314
2.416278 -0.100336 0.993780
2.416567 -0.104161 0.995789
2.417876 -0.100556 0.997799
2.437188 -0.103203 0.984699
2.437580 -0.107042 0.986663
2.438990 -0.103451 0.988628
2.456571 -0.105859 0.974982
2.457073 -0.109714 0.976890
2.458594 -0.106137 0.978800
2.474428 -0.108305 0.964631
2.475048 -0.112175 0.966471
2.476686 -0.108615 0.968312
2.490760 -0.110540 0.953650
2.491504 -0.114427 0.955406
2.493266 -0.110884 0.957163
2.505569 -0.112565 0.942039
2.506442 -0.116470 0.943694
2.508332 -0.112944 0.945350
2.518856 -0.114380 0.929801
2.519860 -0.118302 0.931335
2.521881 -0.114794 0.932872
2.530628 -0.115985 0.916936
2.531760 -0.119925 0.918330
2.533909 -0.116435 0.919726
2.540887 -0.117382 0.903445
2.542141 -0.121339 0.904678
2.544411 -0.117865 0.905914
2.549639 -0.118571 0.889326
2.551004 -0.122542 0.890380
2.553384 -0.119083 0.891439
2.556888 -0.119552 0.874574
2.558348 -0.123537 0.875436
2.560822 -0.120090 0.876302
2.562638 -0.120326 0.859185
2.564172 -0.124321 0.859845
2.566722 -0.120885 0.860510
2.566890 -0.120894 0.843152
2.568479 -0.124896 0.843607
2.571083 -0.121467 0.844068
2.569644 -0.121254 0.826470
2.571266 -0.125261 0.826723
2.573904 -0.121836 0.826984
2.570898 -0.121408 0.809133
2.572535 -0.125416 0.809193
2.575187 -0.121993 0.809260
2.570650 -0.121354 0.791138
2.572285 -0.125362 0.791016
2.574934 -0.121939 0.790903
2.568897 -0.121093 0.772482
2.570517 -0.125098 0.772193
2.573150 -0.121672 0.771913
2.565635 -0.120623 0.753164
2.567229 -0.124624 0.752723
2.569837 -0.121195 0.752292
2.560861 -0.119944 0.733185
2.562423 -0.123941 0.732607
2.564999 -0.120507 0.732040
2.554573 -0.119056 0.712544
2.556098 -0.123048 0.711845
2.558637 -0.119609 0.711156
2.546769 -0.117959 0.691243
2.548254 -0.121946 0.690436
2.550754 -0.118501 0.689639
2.537447 -0.116653 0.669284
2.538892 -0.120634 0.668380
2.541352 -0.117183 0.667488
2.526607 -0.115137 0.646667
2.528011 -0.119112 0.645678
2.530430 -0.115656 0.644701
2.514247 -0.113411 0.623395
2.515611 -0.117380 0.622330
2.517990 -0.113919 0.621277
2.500368 -0.111475 0.599467
2.501692 -0.115439 0.598335
2.504033 -0.111972 0.597215
2.484968 -0.109330 0.574886
2.486255 -0.113288 0.573694
2.488558 -0.109816 0.572514
2.468048 -0.106974 0.549652
2.469299 -0.110928 0.548406
2.471566 -0.107451 0.547173
2.449607 -0.104409 0.523766
2.450825 -0.108358 0.522472
2.453058 -0.104876 0.521192
2.429646 -0.101633 0.497228
2.430831 -0.105578 0.495892
2.433032 -0.102092 0.494568
2.408165 -0.098648 0.470040
2.409319 -0.102589 0.468665
2.411490 -0.099098 0.467303
2.385163 -0.095453 0.442201
2.386288 -0.099389 0.440791
2.388430 -0.095895 0.439394
2.360641 -0.092048 0.413713
2.361739 -0.095981 0.412271
2.363853 -0.092482 0.410843
2.334598 -0.088433 0.384576
2.335670 -0.092362 0.383105
2.337759 -0.088860 0.381647
2.307036 -0.084609 0.354789
2.308083 -0.088534 0.353292
2.310148 -0.085029 0.351808
2.277953 -0.080574 0.324354
2.278978 -0.084496 0.322833
2.281019 -0.080988 0.321325
2.247350 -0.076330 0.293271
2.248353 -0.080249 0.291727
2.250373 -0.076737 0.290197
2.215228 -0.071876 0.261539
2.216210 -0.075792 0.259975
2.218209 -0.072278 0.258424
2.181586 -0.067212 0.229159
2.182548 -0.071125 0.227576
2.184528 -0.067608 0.226007
2.146423 -0.062338 0.196131
2.147367 -0.066249 0.194531
2.149328 -0.062729 0.192944
2.109742 -0.057254 0.162456
2.110668 -0.061163 0.160840
2.112612 -0.057641 0.159237
2.071540 -0.051961 0.128133
2.072450 -0.055867 0.126501
2.074377 -0.052343 0.124884
2.031819 -0.046458 0.093163
2.032713 -0.050362 0.091517
2.034625 -0.046835 0.089886
1.990571 -0.040744 0.057538
1.991458 -0.044647 0.055886
1.993361 -0.041119 0.054248
1.783898 -0.548106 0.858735
1.787630 -0.547686 0.856581
1.789952 -0.589839 0.852384
1.786220 -0.590273 0.854537
1.787654 -0.548114 0.860890
1.789977 -0.590295 0.856690
1.792184 -0.630581 0.847782
1.788454 -0.631043 0.849932
1.792212 -0.631096 0.852081
1.794326 -0.669925 0.842773
1.790598 -0.670417 0.844920
1.794358 -0.670503 0.847065
1.796380 -0.707871 0.837359
1.792653 -0.708396 0.839500
1.796415 -0.708516 0.841641
1.798345 -0.744419 0.831538
1.794620 -0.744978 0.833674
1.798384 -0.745135 0.835808
1.800220 -0.779569 0.825311
1.796497 -0.780165 0.827441
1.800264 -0.780362 0.829568
1.802007 -0.813320 0.818679
1.798286 -0.813955 0.820800
1.802055 -0.814195 0.822919
1.803705 -0.845671 0.811641
1.799986 -0.846349 0.813753
1.803757 -0.846635 0.815862
1.805314 -0.876624 0.804197
1.801597 -0.877348 0.806299
1.805371 -0.877683 0.808396
1.806833 -0.906177 0.796349
1.803119 -0.906950 0.798437
1.806895 -0.907339 0.800520
1.808263 -0.934330 0.788096
1.804552 -0.935157 0.790169
1.808332 -0.935603 0.792235
1.809605 -0.961083 0.779440
1.805897 -0.961967 0.781493
1.809679 -0.962475 0.783539
1.810857 -0.986435 0.770379
1.807152 -0.987381 0.772411
1.810938 -0.987956 0.774433
1.812020 -1.010386 0.760917
1.808318 -1.011399 0.762922
1.812108 -1.012046 0.764915
1.813094 -1.032937 0.751052
1.809396 -1.034021 0.753026
1.813189 -1.034746 0.754985
1.814080 -1.054085 0.740787
1.810385 -1.055247 0.742723
1.814181 -1.056056 0.744641
1.814976 -1.073832 0.730122
1.811284 -1.075077 0.732013
1.815085 -1.075975 0.733883
1.815782 -1.092177 0.719058
1.812095 -1.093511 0.720896
1.815900 -1.094504 0.722708
1.816500 -1.109121 0.707598
1.812817 -1.110549 0.709372
1.816626 -1.111644 0.711116
1.817129 -1.124664 0.695743
1.813450 -1.126190 0.697442
1.817264 -1.127392 0.699104
1.817670 -1.138808 0.683495
1.813994 -1.140436 0.685105
1.817812 -1.141747 0.686672
1.818121 -1.151554 0.670854
1.814450 -1.153286 0.672361
1.818271 -1.154709 0.673816
1.818484 -1.162905 0.657823
1.814816 -1.164739 0.659211
1.818641 -1.166274 0.660538
1.818759 -1.172862 0.644401
1.815094 -1.174797 0.645654
1.818922 -1.176441 0.646835
1.818946 -1.181431 0.630588
1.815282 -1.183460 0.631690
1.819112 -1.185203 0.632708
1.819044 -1.188615 0.616383
1.815382 -1.190726 0.617320
1.819214 -1.192560 0.618160
1.819055 -1.194416 0.601782
1.815393 -1.196597 0.602543
1.819224 -1.198506 0.603193
1.818978 -1.198837 0.586781
1.815315 -1.201072 0.587359
1.819145 -1.203040 0.587812
1.818813 -1.201881 0.571376
1.815147 -1.204152 0.571768
1.818976 -1.206159 0.572020
1.818560 -1.203546 0.555561
1.814892 -1.205837 0.555770
1.818717 -1.207865 0.555823
1.818219 -1.203831 0.539334
1.814547 -1.206126 0.539365
1.818368 -1.208157 0.539226
1.817790 -1.202736 0.522690
1.814114 -1.205019 0.522552
1.817930 -1.207039 0.522232
1.817272 -1.200256 0.505626
1.813591 -1.202517 0.505332
1.817403 -1.204513 0.504843
1.816666 -1.196390 0.488142
1.812980 -1.198619 0.487705
1.816786 -1.200581 0.487061
1.815971 -1.191134 0.470238
1.812280 -1.193326 0.469670
1.816080 -1.195246 0.468885
1.815187 -1.184487 0.451913
1.811491 -1.186636 0.451228
1.815286 -1.188511 0.450317
1.814313 -1.176446 0.433168
1.810612 -1.178551 0.432378
1.814403 -1.180377 0.431354
1.813351 -1.167011 0.414004
1.809646 -1.169070 0.413121
1.813431 -1.170847 0.411997
1.812300 -1.156179 0.394423
1.808590 -1.158193 0.393457
1.812370 -1.159920 0.392243
1.811159 -1.143952 0.374425
1.807445 -1.145919 0.373385
1.811221 -1.147598 0.372091
1.809929 -1.130326 0.354012
1.806211 -1.132250 0.352907
1.809983 -1.133882 0.351541
1.808611 -1.115303 0.333185
1.804889 -1.117185 0.332020
1.808656 -1.118771 0.330592
1.807202 -1.098883 0.311944
1.803477 -1.100724 0.310727
1.807241 -1.102266 0.309242
1.805705 -1.081064 0.290290
1.801977 -1.082867 0.289027
1.805737 -1.084368 0.287491
1.804119 -1.061848 0.268225
1.800388 -1.063614 0.266919
1.804145 -1.065076 0.265338
1.802444 -1.041234 0.245748
1.798710 -1.042965 0.244404
1.802464 -1.044389 0.242782
1.800679 -1.019221 0.222860
1.796942 -1.020920 0.221482
1.800694 -1.022309 0.219824
1.798826 -0.995811 0.199561
1.795086 -0.997480 0.198153
1.798835 -0.998834 0.196461
1.796883 -0.971004 0.175853
1.793141 -0.972643 0.174417
1.796887 -0.973966 0.172694
1.794852 -0.944799 0.151735
1.791108 -0.946410 0.150273
1.794852 -0.947703 0.148523
1.792731 -0.917196 0.127208
1.788985 -0.918781 0.125722
1.792727 -0.920046 0.123948
1.790521 -0.888196 0.102271
1.786773 -0.889756 0.100765
1.790513 -0.890994 0.098967
1.788222 -0.857798 0.076926
1.784473 -0.859335 0.075400
1.788210 -0.860548 0.073581
1.785835 -0.826004 0.051172
1.782083 -0.827518 0.049628
1.785819 -0.828708 0.047790
1.783358 -0.792812 0.025010
1.779605 -0.794306 0.023449
1.783339 -0.795472 0.021593
1.780792 -0.758223 -0.001561
1.777038 -0.759697 -0.003137
1.780770 -0.760842 -0.005009
1.778138 -0.722238 -0.028540
1.774382 -0.723692 -0.030130
1.778113 -0.724817 -0.032018
1.775394 -0.684855 -0.055927
1.771637 -0.686292 -0.057530
1.775366 -0.687397 -0.059432
1.772561 -0.646067 -0.083728
1.768803 -0.647495 -0.085338
1.772532 -0.648591 -0.087247
0.830393 -0.489125 1.844037
0.834185 -0.489038 1.841949
0.842465 -0.536011 1.855026
0.838675 -0.536113 1.857118
0.833986 -0.487910 1.846125
0.842269 -0.534896 1.859206
0.850726 -0.581548 1.867412
0.846942 -0.581681 1.869513
0.850534 -0.580459 1.871599
0.858969 -0.625658 1.879110
0.855191 -0.625824 1.881219
0.858782 -0.624597 1.883304
0.867194 -0.668342 1.890119
0.863423 -0.668542 1.892237
0.867013 -0.667310 1.894320
0.875401 -0.709597 1.900439
0.871637 -0.709835 1.902567
0.875227 -0.708597 1.904648
0.883591 -0.749425 1.910071
0.879835 -0.749704 1.912208
0.883423 -0.748459 1.914288
0.891762 -0.787826 1.919014
0.888016 -0.788148 1.921161
0.891602 -0.786897 1.923240
0.899915 -0.824798 1.927268
0.896179 -0.825167 1.929426
0.899764 -0.823909 1.931503
0.908050 -0.860343 1.934834
0.904326 -0.860762 1.937003
0.907909 -0.859496 1.939078
0.916167 -0.894458 1.941711
0.912455 -0.894933 1.943891
0.916037 -0.893658 1.945964
0.924265 -0.927145 1.947899
0.920569 -0.927681 1.950091
0.924147 -0.926397 1.952163
0.932344 -0.958403 1.953399
0.928665 -0.959004 1.955602
0.932241 -0.957710 1.957672
0.940404 -0.988231 1.958210
0.936745 -0.988904 1.960425
0.940318 -0.987599 1.962493
0.948446 -1.016629 1.962334
0.944808 -1.017381 1.964560
0.948378 -1.016064 1.966626
0.956467 -1.043596 1.965769
0.952856 -1.044436 1.968006
0.956421 -1.043104 1.970071
0.964468 -1.069131 1.968516
0.960888 -1.070068 1.970763
0.964448 -1.068722 1.972826
0.972449 -1.093234 1.970575
0.968904 -1.094279 1.972832
0.972459 -1.092916 1.974893
0.980408 -1.115904 1.971947
0.976905 -1.117068 1.974211
0.980454 -1.115686 1.976271
0.988345 -1.137139 1.972632
0.984892 -1.138437 1.974900
0.988433 -1.137035 1.976960
0.996258 -1.156939 1.972632
0.992866 -1.158387 1.974900
0.996397 -1.156961 1.976960
1.004147 -1.175301 1.971947
1.000827 -1.176918 1.974209
1.004347 -1.175466 1.976270
1.012008 -1.192225 1.970580
1.008776 -1.194031 1.972826
1.012283 -1.192550 1.974889
1.019840 -1.207709 1.968532
1.016715 -1.209727 1.970749
1.020205 -1.208213 1.972817
1.027639 -1.221753 1.965806
1.024646 -1.224006 1.967977
1.028116 -1.222455 1.970052
1.035404 -1.234356 1.962407
1.032571 -1.236869 1.964507
1.036016 -1.235278 1.966593
1.043129 -1.245520 1.958340
1.040492 -1.248314 1.960336
1.043907 -1.246680 1.962439
1.050813 -1.255249 1.953610
1.048411 -1.258339 1.955461
1.051789 -1.256659 1.957586
1.058454 -1.263550 1.948222
1.056328 -1.266940 1.949878
1.059663 -1.265213 1.952033
1.066053 -1.270434 1.942181
1.064243 -1.274109 1.943585
1.067529 -1.272338 1.945779
1.073615 -1.275914 1.935485
1.072152 -1.279839 1.936581
1.075385 -1.278029 1.938823
1.081151 -1.280001 1.928129
1.080050 -1.284123 1.928872
1.083226 -1.282283 1.931169
1.088671 -1.282704 1.920104
1.087929 -1.286955 1.920463
1.091050 -1.285094 1.922819
1.096187 -1.284023 1.911394
1.095783 -1.288334 1.911363
1.098851 -1.286465 1.913779
1.103707 -1.283955 1.901988
1.103605 -1.288264 1.901579
1.106627 -1.286395 1.904054
1.111235 -1.282490 1.891876
1.111395 -1.286750 1.891117
1.114376 -1.284888 1.893647
1.118771 -1.279619 1.881054
1.119150 -1.283797 1.879981
1.122097 -1.281948 1.882559
1.126314 -1.275335 1.869521
1.126874 -1.279411 1.868171
1.129793 -1.277578 1.870792
1.133859 -1.269631 1.857276
1.134567 -1.273596 1.855687
1.137463 -1.271780 1.858345
1.141404 -1.262501 1.844322
1.142232 -1.266354 1.842527
1.145110 -1.264555 1.845217
1.148945 -1.253945 1.830662
1.149872 -1.257687 1.828690
1.152734 -1.255906 1.831407
1.156480 -1.243960 1.816298
1.157487 -1.247596 1.814173
1.160336 -1.245831 1.816915
1.164006 -1.232545 1.801233
1.165078 -1.236082 1.798977
1.167918 -1.234332 1.801739
1.171522 -1.219700 1.785469
1.172648 -1.223145 1.783099
1.175479 -1.221409 1.785878
1.179026 -1.205426 1.769007
1.180197 -1.208784 1.766538
1.183021 -1.207062 1.769332
1.186517 -1.189721 1.751850
1.187727 -1.193000 1.749293
1.190545 -1.191291 1.752101
1.193994 -1.172587 1.733997
1.195236 -1.175793 1.731364
1.198049 -1.174095 1.734184
1.201456 -1.154024 1.715450
1.202725 -1.157162 1.712750
1.205534 -1.155474 1.715581
1.208904 -1.134031 1.696211
1.210196 -1.137108 1.693451
1.213002 -1.135429 1.696291
1.216336 -1.112610 1.676279
1.217648 -1.115629 1.673465
1.220451 -1.113960 1.676313
1.223753 -1.089761 1.655655
1.225082 -1.092726 1.652794
1.227882 -1.091065 1.655649
1.231153 -1.065483 1.634340
1.232498 -1.068399 1.631435
1.235295 -1.066746 1.634297
1.238537 -1.039777 1.612334
1.239895 -1.042647 1.609390
1.242690 -1.041001 1.612258
1.245905 -1.012644 1.589637
1.247274 -1.015472 1.586658
1.250067 -1.013832 1.589532
1.253256 -0.984082 1.566250
1.254635 -0.986871 1.563238
1.257427 -0.985237 1.566117
1.260590 -0.954094 1.542173
1.261979 -0.956845 1.539131
1.264769 -0.955217 1.542015
1.267907 -0.922678 1.517406
1.269304 -0.925395 1.514337
1.272093 -0.923772 1.517225
1.275208 -0.889835 1.491949
1.276612 -0.892520 1.488855
1.279400 -0.890902 1.491747
1.282492 -0.855565 1.465803
1.283902 -0.858219 1.462685
1.286689 -0.856606 1.465581
1.289760 -0.819859 1.438960
1.291173 -0.822499 1.435832
1.293960 -0.820888 1.438729
0.021414 -0.154683 0.993504
0.021933 -0.158496 0.991518
-0.019543 -0.154716 0.973434
-0.020073 -0.150902 0.975414
0.020215 -0.158339 0.995490
-0.021284 -0.154558 0.977395
-0.059553 -0.151085 0.955416
-0.060109 -0.147268 0.957385
-0.061343 -0.150922 0.959356
-0.098110 -0.147600 0.937460
-0.098693 -0.143782 0.939417
-0.099951 -0.147433 0.941376
-0.135214 -0.144263 0.919566
-0.135826 -0.140442 0.921509
-0.137109 -0.144090 0.923456
-0.170865 -0.141073 0.901733
-0.171506 -0.137249 0.903661
-0.172817 -0.140895 0.905594
-0.205062 -0.138030 0.883963
-0.205735 -0.134203 0.885874
-0.207075 -0.137847 0.887792
-0.237804 -0.135134 0.866254
-0.238512 -0.131304 0.868147
-0.239883 -0.134945 0.870048
-0.269093 -0.132385 0.848608
-0.269837 -0.128552 0.850481
-0.271241 -0.132190 0.852363
-0.298928 -0.129783 0.831025
-0.299710 -0.125947 0.832875
-0.301149 -0.129582 0.834737
-0.327308 -0.127329 0.813505
-0.328132 -0.123489 0.815329
-0.329608 -0.127121 0.817168
-0.354234 -0.125022 0.796048
-0.355102 -0.121178 0.797844
-0.356618 -0.124806 0.799657
-0.379706 -0.122862 0.778656
-0.380620 -0.119014 0.780419
-0.382178 -0.122639 0.782204
-0.403722 -0.120849 0.761327
-0.404686 -0.116997 0.763055
-0.406289 -0.120618 0.764807
-0.426284 -0.118983 0.744064
-0.427300 -0.115127 0.745751
-0.428951 -0.118744 0.747466
-0.447390 -0.117264 0.726866
-0.448463 -0.113404 0.728508
-0.450165 -0.117016 0.730181
-0.467042 -0.115693 0.709734
-0.468173 -0.111827 0.711324
-0.469930 -0.115436 0.712951
-0.485238 -0.114269 0.692670
-0.486432 -0.110398 0.694201
-0.488245 -0.114002 0.695774
-0.501979 -0.112991 0.675675
-0.503240 -0.109116 0.677139
-0.505113 -0.112716 0.678650
-0.517266 -0.111861 0.658749
-0.518595 -0.107981 0.660136
-0.520531 -0.111576 0.661578
-0.531098 -0.110878 0.641893
-0.532499 -0.106993 0.643194
-0.534499 -0.110583 0.644557
-0.543477 -0.110042 0.625110
-0.544951 -0.106151 0.626311
-0.547017 -0.109737 0.627585
-0.554404 -0.109352 0.608400
-0.555951 -0.105457 0.609489
-0.558084 -0.109039 0.610660
-0.563880 -0.108809 0.591765
-0.565499 -0.104910 0.592727
-0.567697 -0.108488 0.593784
-0.571908 -0.108412 0.575204
-0.573595 -0.104509 0.576025
-0.575855 -0.108084 0.576953
-0.578489 -0.108161 0.558719
-0.580239 -0.104256 0.559383
-0.582556 -0.107829 0.560169
-0.583628 -0.108056 0.542308
-0.585431 -0.104150 0.542801
-0.587796 -0.107722 0.543431
-0.587326 -0.108096 0.525970
-0.589170 -0.104191 0.526279
-0.591573 -0.107763 0.526742
-0.589586 -0.108282 0.509703
-0.591458 -0.104379 0.509818
-0.593885 -0.107953 0.510105
-0.590411 -0.108613 0.493501
-0.592292 -0.104713 0.493416
-0.594729 -0.108291 0.493522
-0.589801 -0.109088 0.477362
-0.591675 -0.105195 0.477075
-0.594105 -0.108778 0.476997
-0.587757 -0.109710 0.461281
-0.589605 -0.105824 0.460795
-0.592012 -0.109414 0.460537
-0.584276 -0.110477 0.445252
-0.586083 -0.106600 0.444576
-0.588452 -0.110199 0.444143
-0.579356 -0.111389 0.429274
-0.581108 -0.107523 0.428417
-0.583427 -0.111131 0.427821
-0.572996 -0.112448 0.413342
-0.574681 -0.108593 0.412319
-0.576940 -0.112211 0.411572
-0.565191 -0.113654 0.397457
-0.566802 -0.109810 0.396282
-0.568994 -0.113438 0.395398
-0.555939 -0.115006 0.381617
-0.557471 -0.111174 0.380306
-0.559591 -0.114813 0.379299
-0.545238 -0.116505 0.365822
-0.546689 -0.112685 0.364392
-0.548735 -0.116334 0.363275
-0.533084 -0.118152 0.350074
-0.534454 -0.114343 0.348538
-0.536426 -0.118002 0.347324
-0.519478 -0.119947 0.334374
-0.520767 -0.116148 0.332745
-0.522666 -0.119816 0.331447
-0.504418 -0.121888 0.318723
-0.505629 -0.118099 0.317012
-0.507457 -0.121777 0.315641
-0.487902 -0.123978 0.303122
-0.489039 -0.120198 0.301341
-0.490799 -0.123885 0.299905
-0.469931 -0.126215 0.287573
-0.470997 -0.122444 0.285730
-0.472692 -0.126138 0.284239
-0.450505 -0.128599 0.272077
-0.451503 -0.124837 0.270180
-0.453138 -0.128539 0.268640
-0.429623 -0.131131 0.256635
-0.430557 -0.127376 0.254691
-0.432135 -0.131085 0.253109
-0.407285 -0.133810 0.241248
-0.408160 -0.130063 0.239263
-0.409683 -0.133778 0.237643
-0.383492 -0.136637 0.225916
-0.384311 -0.132896 0.223895
-0.385784 -0.136618 0.222242
-0.358243 -0.139612 0.210640
-0.359011 -0.135877 0.208588
-0.360436 -0.139604 0.206906
-0.331540 -0.142734 0.195422
-0.332258 -0.139005 0.193341
-0.333639 -0.142737 0.191634
-0.303381 -0.146003 0.180261
-0.304054 -0.142279 0.178155
-0.305393 -0.146016 0.176426
-0.273768 -0.149419 0.165157
-0.274397 -0.145701 0.163030
-0.275697 -0.149442 0.161281
-0.242700 -0.152983 0.150112
-0.243290 -0.149269 0.147965
-0.244553 -0.153015 0.146198
-0.210178 -0.156694 0.135125
-0.210730 -0.152984 0.132961
-0.211959 -0.156734 0.131178
-0.176202 -0.160553 0.120197
-0.176718 -0.156847 0.118017
-0.177916 -0.160600 0.116220
-0.140772 -0.164558 0.105328
-0.141255 -0.160856 0.103134
-0.142422 -0.164613 0.101325
-0.103888 -0.168711 0.090518
-0.104340 -0.165012 0.088312
-0.105478 -0.168772 0.086491
-0.065551 -0.173011 0.075767
-0.065973 -0.169316 0.073550
-0.067085 -0.173079 0.071718
-0.025760 -0.177458 0.061076
-0.026154 -0.173766 0.058848
-0.027241 -0.177532 0.057007
0.015484 -0.182052 0.046444
0.015116 -0.178363 0.044207
0.014054 -0.182132 0.042358
0.058194 -0.186795 0.031868
0.057838 -0.183107 0.029627
0.056787 -0.186877 0.027774
0.054263 0.861527 -0.105310
0.055070 0.857794 -0.107350
0.018212 0.856968 -0.120430
0.017390 0.860701 -0.118394
0.053623 0.857762 -0.103270
0.016739 0.856935 -0.116358
-0.017181 0.856152 -0.133481
-0.018030 0.859884 -0.131456
-0.018705 0.856118 -0.129429
-0.051118 0.855346 -0.146509
-0.051997 0.859077 -0.144496
-0.052698 0.855310 -0.142478
-0.083600 0.854548 -0.159513
-0.084512 0.858279 -0.157512
-0.085240 0.854511 -0.155505
-0.114627 0.853761 -0.172493
-0.115574 0.857490 -0.170507
-0.116331 0.853722 -0.168512
-0.144199 0.852982 -0.185448
-0.145184 0.856711 -0.183479
-0.145972 0.852942 -0.181498
-0.172315 0.852213 -0.198379
-0.173340 0.855941 -0.196428
-0.174162 0.852171 -0.194463
-0.198975 0.851454 -0.211284
-0.200044 0.855180 -0.209355
-0.200903 0.851409 -0.207407
-0.224179 0.850704 -0.224165
-0.225295 0.854429 -0.222259
-0.226194 0.850657 -0.220332
